# .PCD v0.7 - Point Cloud Data file format
VERSION 0.7
FIELDS x y z
SIZE 4 4 4
TYPE F F F
COUNT 1 1 1
WIDTH 126
HEIGHT 1
VIEWPOINT 0 0 0 1 0 0 0
POINTS 126
DATA ascii
1.238524931 1.419804604 -1.09229048
1.237538227 1.419779221 -1.081762664
1.237497189 1.419697845 -1.071616301
1.238387646 1.419793998 -1.061895749
1.23782616 1.41964606 -1.051665395
1.238267094 1.419706611 -1.041789797
1.23917304 1.419814515 -1.031989083
1.239099571 1.419684342 -1.022013808
1.239056514 1.419659196 -1.011870892
1.237779491 1.409722915 -1.092119334
1.23773253 1.409822022 -1.081981518
1.236777699 1.409671467 -1.071601374
1.237631097 1.409760556 -1.061775232
1.237553127 1.409761654 -1.051806617
1.237527591 1.409683973 -1.041581314
1.238387232 1.409691979 -1.032028096
1.237397036 1.409488485 -1.021539304
1.23829566 1.409551057 -1.011781307
1.23795107 1.399839749 -1.092444737
1.236972614 1.399730163 -1.081885194
1.237862971 1.3998428 -1.072162847
1.237824664 1.399791409 -1.061999279
1.236812228 1.399666863 -1.051613974
1.237691365 1.39973907 -1.041953872
1.237641627 1.399685034 -1.031848734
1.237592645 1.399655309 -1.021736492
1.23753855 1.399619237 -1.011651324
1.237201642 1.389904366 -1.092276134
1.237137148 1.389853529 -1.082245617
1.237101689 1.38984168 -1.07206247
1.237265919 1.389773374 -1.062127699
1.237058749 1.389809538 -1.051866904
1.236939027 1.389654475 -1.041818142
1.237831512 1.389739782 -1.032088598
1.237421497 1.389739316 -1.021869835
1.237712636 1.389646416 -1.011974849
1.235556334 1.379788536 -1.091846464
1.235458168 1.379636966 -1.081653887
1.236318388 1.379741643 -1.071912048
1.23534682 1.379663195 -1.06148737
1.236242252 1.37977017 -1.051740221
1.238084559 1.379897343 -1.042359457
1.2375616 1.379821312 -1.032108002
1.23701495 1.379642824 -1.021916011
1.23694925 1.379673067 -1.011881804
1.234767579 1.369741502 -1.091673662
1.235630741 1.369769897 -1.081972282
1.235579618 1.369799508 -1.07186405
1.2353092 1.369708596 -1.061657015
1.235484219 1.369692111 -1.051632651
1.235548308 1.369680404 -1.041655152
1.235360546 1.369649215 -1.031537169
1.237214081 1.369715377 -1.022106719
1.235867521 1.369605231 -1.011624135
1.233968031 1.359742962 -1.091639701
1.235246356 1.359876151 -1.082043177
1.234825378 1.359765774 -1.071731517
1.235635795 1.359857462 -1.062031241
1.235685183 1.359809294 -1.051808636
1.235596054 1.359723538 -1.041907274
1.235578278 1.35976496 -1.031628088
1.235500672 1.35961431 -1.021676321
1.235428937 1.359636755 -1.011673425
1.235092825 1.349848962 -1.092303025
1.234639285 1.349805917 -1.081920989
1.234082661 1.349759564 -1.07153738
1.234004504 1.349698129 -1.061577605
1.234893348 1.349756638 -1.051869818
1.234831701 1.349618453 -1.041835107
1.235734825 1.349764273 -1.032044146
1.234721263 1.349609652 -1.021668211
1.234671765 1.349607926 -1.011555513
1.234336131 1.339794122 -1.092185833
1.234271824 1.339844425 -1.082142111
1.233764734 1.339755403 -1.071747514
1.234195489 1.339715414 -1.061816422
1.235080249 1.339761549 -1.052130895
1.234725481 1.339715253 -1.041893673
1.23497578 1.339665302 -1.031944257
1.233951993 1.33967054 -1.021600927
1.233897338 1.339544392 -1.011529521
1.233565845 1.32984985 -1.092124339
1.233521609 1.329896619 -1.081978706
1.233487203 1.329759688 -1.071805673
1.232472767 1.329716473 -1.061420679
1.234541653 1.329762086 -1.052032937
1.234268846 1.329747097 -1.041922085
1.233920332 1.329580255 -1.031755189
1.234155595 1.329715186 -1.021772289
1.234088695 1.329630633 -1.01175809
1.233748367 1.319855277 -1.092407617
1.232773666 1.319835465 -1.081817795
1.233671631 1.319766782 -1.072079053
1.233598743 1.319745575 -1.062087616
1.233569831 1.31978786 -1.05186463
1.233485503 1.319762199 -1.041931887
1.233450787 1.319685034 -1.031752878
1.233394917 1.319617125 -1.021680588
1.234275003 1.319689056 -1.012015696
1.23299906 1.309802924 -1.09225257
1.232019631 1.309786596 -1.081686366
1.23289817 1.309746253 -1.07204294
1.233786433 1.309737967 -1.062346204
1.232807598 1.309686907 -1.051781182
1.233674153 1.309694457 -1.042192876
1.232683234 1.309683993 -1.03168437
1.232637246 1.309668061 -1.021555545
1.233518791 1.309632476 -1.01189596
1.232243468 1.299832916 -1.092119192
1.232187273 1.299803064 -1.082043942
1.232142335 1.299778534 -1.071910825
1.232089684 1.299751221 -1.061816947
1.232714536 1.299718589 -1.052011333
1.232966943 1.29944998 -1.041847114
1.232861914 1.299613706 -1.031996348
1.233019559 1.299499201 -1.02200513
1.23275631 1.299673953 -1.011796515
1.230532509 1.289879392 -1.091658457
1.232375935 1.289831882 -1.082293169
1.232303289 1.28977804 -1.07230446
1.232286871 1.289777859 -1.0620231
1.23220058 1.289726025 -1.052103512
1.233110854 1.289669475 -1.042300728
1.2322573 1.289609572 -1.031984294
1.232994275 1.289617368 -1.022170297
1.231028493 1.289678816 -1.011426517
